0.000000 -800.000000 40.000000
0.000000 -801.984556 40.248069
0.000000 -803.969112 40.496139
0.000000 -805.953667 40.744208
0.000000 -807.938223 40.992278
0.000000 -809.922779 41.240347
0.000000 -811.907335 41.488417
0.000000 -813.891890 41.736486
0.000000 -815.876446 41.984556
0.000000 -817.861002 42.232625
0.000000 -819.845558 42.480695
0.000000 -821.830113 42.728764
0.000000 -823.814669 42.976834
0.000000 -825.799225 43.224903
0.000000 -827.783781 43.472973
0.000000 -829.768336 43.721042
0.000000 -831.752892 43.969112
0.000000 -833.737448 44.217181
0.000000 -835.722004 44.465250
0.000000 -837.706559 44.713320
0.000000 -839.691115 44.961389
0.000000 -841.675671 45.209459
0.000000 -843.660227 45.457528
0.000000 -845.644782 45.705598
0.000000 -847.629338 45.953667
0.000000 -849.613894 46.201737
0.000000 -851.598450 46.449806
0.000000 -853.583005 46.697876
0.000000 -855.567561 46.945945
0.000000 -857.552117 47.194015
0.000000 -859.536673 47.442084
0.000000 -861.521228 47.690154
0.000000 -864.000000 48.000000
-0.772487 -864.193122 46.165343
-1.544975 -864.386244 44.330685
-2.317462 -864.579365 42.496028
-3.089949 -864.772487 40.661371
-3.862436 -864.965609 38.826714
-4.634924 -865.158731 36.992056
-5.407411 -865.351853 35.157399
-6.179898 -865.544975 33.322742
-6.952386 -865.738096 31.488084
-7.724873 -865.931218 29.653427
-8.497360 -866.124340 27.818770
-9.269847 -866.317462 25.984113
-10.042335 -866.510584 24.149455
-10.814822 -866.703705 22.314798
-11.587309 -866.896827 20.480141
-12.359796 -867.089949 18.645483
-13.132284 -867.283071 16.810826
-13.904771 -867.476193 14.976169
-14.677258 -867.669315 13.141512
-15.449746 -867.862436 11.306854
-16.222233 -868.055558 9.472197
-16.994720 -868.248680 7.637540
-17.767207 -868.441802 5.802882
-18.539695 -868.634924 3.968225
-19.312182 -868.828045 2.133568
-20.084669 -869.021167 0.298911
-20.857157 -869.214289 -1.535747
-21.629644 -869.407411 -3.370404
-22.402131 -869.600533 -5.205061
-23.174618 -869.793655 -7.039719
-23.947106 -869.986776 -8.874376
-24.719593 -870.179898 -10.709033
-25.492080 -870.373020 -12.543691
-26.264567 -870.566142 -14.378348
-27.037055 -870.759264 -16.213005
-27.809542 -870.952386 -18.047662
-28.582029 -871.145507 -19.882320
-29.354517 -871.338629 -21.716977
-30.127004 -871.531751 -23.551634
-30.899491 -871.724873 -25.386292
-32.000000 -872.000000 -28.000000
-34.000000 -872.000000 -28.000000
-36.000000 -872.000000 -28.000000
-38.000000 -872.000000 -28.000000
-40.000000 -872.000000 -28.000000
-42.000000 -872.000000 -28.000000
-44.000000 -872.000000 -28.000000
-46.000000 -872.000000 -28.000000
-48.000000 -872.000000 -28.000000
-50.000000 -872.000000 -28.000000
-52.000000 -872.000000 -28.000000
-54.000000 -872.000000 -28.000000
-56.000000 -872.000000 -28.000000
-58.000000 -872.000000 -28.000000
-60.000000 -872.000000 -28.000000
